ply
format ascii 1.0
element vertex 59
property float x
property float y
property float z
property uchar red
property uchar green
property uchar blue
end_header
0.191623 -0.63856 -0.0290049 0 255 0
-5.71857 94.3603 -3.29584 0 255 0
-9.09237 142.811 -4.69689 0 255 0
-16.754 261.182 -8.78763 0 255 0
291.041 259.254 86.8309 0 255 0
298.71 139.318 90.9413 0 255 0
305.467 37.4308 94.4578 0 255 0
-358.734 11.2015 283.721 0 255 0
-363.383 82.4327 281.494 0 255 0
-367.126 138.518 279.856 0 255 0
-374.753 256.229 275.759 0 255 0
-21.0762 -122.656 752.596 255 255 255
-81.4405 -109.733 735.467 255 255 255
29.8729 -84.9635 759.892 255 255 255
-42.5382 -75.6246 748.446 255 255 255
-100.383 -66.0716 734.099 255 255 255
81.3249 -69.7687 775.101 255 255 255
-56.4935 -15.8758 744.539 255 255 255
80.6784 -6.97491 773.962 255 255 255
-101.969 4.77286 733.892 255 255 255
148.504 16.8477 789.257 255 255 255
66.1866 21.8947 771.048 255 255 255
-144.329 27.3097 719.868 255 255 255
-86.4262 52.004 736.414 255 255 255
26.4492 57.4576 760.515 255 255 255
118.636 74.7991 782.011 255 255 255
-120.234 87.276 728.27 255 255 255
-80.7471 104.966 736.403 255 255 255
121.462 126.032 781.263 255 255 255
31.9677 124.842 761.134 255 255 255
76.5172 127.352 771.243 255 255 255
-119.54 128.704 728.207 255 255 255
-78.914 153.81 734.583 255 255 255
-104.917 165.978 726.866 255 255 255
107.076 198.08 776.354 255 255 255
69.9097 198.408 768.145 255 255 255
-89.0567 217.4 732.575 255 255 255
121.689 232.54 779.735 255 255 255
-119.995 224.05 725.223 255 255 255
95.7903 260.293 773.466 255 255 255
49.1686 259.065 742.704 255 255 255
-102.881 263.223 729.024 255 255 255
-80.4713 292.781 733.985 255 255 255
87.9628 311.905 772.083 255 255 255
-105.252 317.369 728.111 255 255 255
61.9928 335.406 764.365 255 255 255
-71.3969 364.831 734.489 255 255 255
22.29 370.817 753.328 255 255 255
-31.2404 382.503 743.256 255 255 255
-3.89294 401.44 749.234 255 255 255
-15.5647 268.333 740.799 255 255 255
60.7627 131.226 727.73 255 255 255
-51.8776 -26.4078 851.976 255 255 255
53.1671 134.396 729.078 255 255 255
-41.72 42.7464 760.753 255 255 255
-82.2229 193.879 706.647 255 255 255
-91.6577 200.579 964.429 255 255 255
-30.0465 273.075 795.083 255 255 255
-43.6701 272.477 680.033 255 255 255
