ply
format ascii 1.0
element vertex 59
property float x
property float y
property float z
property uchar red
property uchar green
property uchar blue
end_header
-0 -0 -0 0 255 0
-6.19296 94.435 -3.16865 0 255 0
-9.50152 142.982 -4.60146 0 255 0
-17.0838 260.916 -8.67299 0 255 0
291.351 259.481 86.4996 0 255 0
299.187 139.061 90.5939 0 255 0
305.992 37.1168 94.0909 0 255 0
-358.883 11.1646 283.775 0 255 0
-363.204 82.4681 281.246 0 255 0
-366.945 138.463 279.529 0 255 0
-374.806 256.344 275.441 0 255 0
-21.0525 -122.688 752.807 255 255 255
-81.4447 -109.764 735.693 255 255 255
29.9186 -84.9807 760.04 255 255 255
-42.5203 -75.6419 748.622 255 255 255
-100.439 -66.1028 734.431 255 255 255
81.379 -69.7803 775.293 255 255 255
-56.4938 -15.8691 744.736 255 255 255
80.7125 -6.969 774.157 255 255 255
-101.982 4.76745 734.086 255 255 255
148.563 16.8699 789.416 255 255 255
66.2119 21.901 771.195 255 255 255
-144.344 27.3129 720.038 255 255 255
-86.4293 51.9919 736.569 255 255 255
26.4535 57.4702 760.592 255 255 255
118.668 74.8185 782.182 255 255 255
-120.23 87.2812 728.368 255 255 255
-80.7526 104.964 736.493 255 255 255
121.471 126.078 781.512 255 255 255
31.9675 124.853 761.224 255 255 255
76.4861 127.368 771.444 255 255 255
-119.563 128.713 728.335 255 255 255
-78.9242 153.812 734.592 255 255 255
-104.908 165.966 726.887 255 255 255
107.075 198.116 776.418 255 255 255
69.9063 198.425 768.158 255 255 255
-89.0788 217.378 732.62 255 255 255
121.691 232.596 779.817 255 255 255
-120.012 224.034 725.272 255 255 255
95.7889 260.341 773.459 255 255 255
49.0506 259.093 742.29 255 255 255
-102.915 263.217 729.065 255 255 255
-80.5001 292.761 733.948 255 255 255
87.9292 311.972 772.106 255 255 255
-105.282 317.351 728.107 255 255 255
61.9449 335.428 764.28 255 255 255
-71.4412 364.812 734.443 255 255 255
22.2344 370.809 753.225 255 255 255
-31.2931 382.484 743.197 255 255 255
-3.94829 401.42 749.144 255 255 255
-15.6125 268.372 740.845 255 255 255
60.8082 131.217 727.851 255 255 255
-51.9278 -26.3691 852.08 255 255 255
53.1157 134.475 729.089 255 255 255
-41.7518 42.8465 760.826 255 255 255
-82.2328 193.77 706.612 255 255 255
-91.7261 200.509 964.555 255 255 255
-30.061 272.95 795.118 255 255 255
-43.656 272.616 680.002 255 255 255
